ply
format ascii 1.0
element vertex 1173
property float x
property float y
property float z
property uchar red
property uchar green
property uchar blue
end_header
-0.022440 0.403927 -5.744740 93 72 71 
-0.011220 0.403927 -5.744740 90 71 71 
0.000000 0.403644 -5.740715 87 70 70 
0.011220 0.403927 -5.744740 83 67 67 
0.110901 0.362949 -5.161941 86 69 60 
0.120907 0.362720 -5.158690 85 69 59 
0.130982 0.362720 -5.158690 87 71 61 
0.141147 0.362949 -5.161941 92 75 65 
0.151229 0.362949 -5.161941 94 77 66 
0.161514 0.363407 -5.168454 98 76 68 
0.171826 0.363866 -5.174984 104 78 70 
0.182048 0.364096 -5.178256 109 79 69 
0.192162 0.364096 -5.178256 113 78 67 
0.268097 0.386059 -5.490617 118 81 75 
0.278820 0.386059 -5.490617 119 81 75 
0.289738 0.386318 -5.494299 122 82 77 
0.300873 0.386837 -5.501679 122 82 79 
0.311828 0.387097 -5.505376 122 82 82 
0.322798 0.387357 -5.509079 124 83 86 
0.334232 0.388140 -5.520216 131 90 95 
0.345479 0.388664 -5.527665 141 97 105 
0.357240 0.389716 -5.542625 160 115 125 
0.369064 0.390773 -5.557666 184 141 151 
10.277778 2.000000 -28.444445 134 105 80 
10.297578 1.993080 -28.346022 136 106 80 
10.352942 1.993080 -28.346022 137 106 79 
10.408304 1.993080 -28.346022 139 107 81 
10.463668 1.993080 -28.346022 143 108 85 
10.482759 1.986207 -28.248276 142 106 86 
10.537931 1.986207 -28.248276 140 104 85 
10.629758 1.993080 -28.346022 139 104 85 
10.685122 1.993080 -28.346022 137 104 83 
10.740484 1.993080 -28.346022 135 104 81 
10.795848 1.993080 -28.346022 136 106 81 
10.851212 1.993080 -28.346022 134 106 82 
10.944445 2.000000 -28.444445 132 105 81 
11.000000 2.000000 -28.444445 131 104 83 
11.094077 2.006969 -28.543554 130 103 84 
2.503401 0.435374 -6.191988 119 102 80 
2.511698 0.434717 -6.182642 120 104 80 
2.521870 0.434389 -6.177979 123 106 82 
2.533937 0.434389 -6.177979 122 104 83 
2.546003 0.434389 -6.177979 119 101 84 
2.560000 0.434717 -6.182642 116 99 86 
8.642570 1.156626 -16.449799 193 187 160 
5.625000 0.750000 -10.666667 191 183 161 
5.631169 0.748052 -10.638961 176 166 149 
5.637306 0.746114 -10.611399 162 153 138 
5.650712 0.745149 -10.597672 160 153 138 
5.671410 0.745149 -10.597672 158 154 139 
11.428572 1.443609 -20.531328 167 167 147 
11.354838 1.429280 -20.327543 167 165 143 
11.172750 1.401460 -19.931873 166 163 140 
11.211679 1.401460 -19.931873 168 165 142 
11.115385 1.384615 -19.692308 172 168 147 
4.720244 0.585961 -8.333673 176 172 151 
4.698285 0.581231 -8.266397 186 180 161 
4.714430 0.581231 -8.266397 194 187 168 
3.166667 0.375000 -5.333333 222 223 212 
3.177083 0.375000 -5.333333 221 222 210 
3.187500 0.375000 -5.333333 220 221 209 
3.197917 0.375000 -5.333333 218 219 206 
3.208333 0.375000 -5.333333 216 215 200 
3.218750 0.375000 -5.333333 211 209 191 
3.243950 0.376717 -5.357750 206 204 183 
-8.111888 1.958042 -28.643356 192 193 197 
-8.027875 1.951220 -28.543554 193 194 196 
-7.916955 1.937716 -28.346022 194 193 197 
-7.807560 1.924399 -28.151203 194 193 198 
-7.673470 1.904762 -27.863945 193 194 199 
-7.516778 1.879195 -27.489933 193 193 199 
-7.413333 1.866667 -27.306667 192 193 198 
-7.335548 1.860465 -27.215946 193 193 199 
-7.258278 1.854305 -27.125828 194 194 199 
-7.181518 1.848185 -27.036304 194 196 197 
-7.128713 1.848185 -27.036304 193 196 195 
-7.075908 1.848185 -27.036304 192 196 195 
-7.093333 1.866667 -27.306667 190 196 194 
-6.903010 1.872910 -27.397993 191 193 193 
-0.389701 0.389701 -5.700766 81 72 64 
-0.378040 0.389159 -5.692842 88 76 69 
-0.366667 0.388889 -5.688889 95 78 73 
-0.355062 0.388350 -5.680999 104 82 78 
-0.343728 0.388080 -5.677062 114 87 83 
-0.332640 0.388080 -5.677062 120 88 84 
-0.321552 0.388080 -5.677062 123 89 83 
-0.310249 0.387812 -5.673130 121 90 80 
-0.298962 0.387543 -5.669204 117 88 76 
-0.287491 0.387008 -5.661368 114 87 72 
-0.275482 0.385675 -5.641873 116 87 71 
-0.264099 0.385144 -5.634113 117 88 71 
-0.253095 0.385144 -5.634113 117 88 73 
-0.242091 0.385144 -5.634113 115 87 74 
-0.231246 0.385410 -5.637990 113 85 74 
-0.220234 0.385410 -5.637990 110 82 73 
-0.209222 0.385410 -5.637990 108 81 74 
-0.198211 0.385410 -5.637990 106 80 74 
-0.187328 0.385675 -5.641873 105 79 74 
-0.134548 0.392432 -5.740715 100 74 64 
-0.123336 0.392432 -5.740715 101 74 65 
-0.112360 0.393258 -5.752809 103 75 68 
-0.101124 0.393258 -5.752809 101 74 68 
-0.089888 0.393258 -5.752809 99 71 67 
-0.078596 0.392982 -5.748772 98 70 66 
-0.067368 0.392982 -5.748772 98 70 66 
-0.056140 0.392982 -5.748772 96 70 66 
-0.044944 0.393258 -5.752809 96 71 67 
-0.033684 0.392982 -5.748772 96 73 69 
-0.022456 0.392982 -5.748772 94 72 68 
-0.011228 0.392982 -5.748772 90 70 66 
0.000000 0.392707 -5.744740 89 69 67 
0.101010 0.353535 -5.171717 92 73 65 
0.110971 0.353090 -5.165195 94 74 66 
0.121059 0.353090 -5.165195 91 72 64 
0.131148 0.353090 -5.165195 94 74 67 
0.141236 0.353090 -5.165195 97 76 69 
0.151324 0.353090 -5.165195 96 75 68 
0.161514 0.353312 -5.168454 100 75 70 
0.171717 0.353535 -5.171717 106 77 72 
0.181818 0.353535 -5.171717 110 78 71 
0.192040 0.353759 -5.174984 115 79 70 
0.202660 0.354655 -5.188094 116 78 67 
0.268097 0.375335 -5.490617 118 79 71 
0.278820 0.375335 -5.490617 120 80 73 
0.289738 0.375587 -5.494299 124 81 75 
0.300873 0.376091 -5.501679 125 81 78 
0.311828 0.376344 -5.505376 126 83 82 
0.322581 0.376344 -5.505376 129 86 88 
0.333782 0.376851 -5.512786 131 88 93 
0.345013 0.377358 -5.520216 140 95 103 
0.356275 0.377868 -5.527665 157 112 121 
0.368065 0.378890 -5.542625 182 138 148 
0.379919 0.379919 -5.557666 203 160 172 
10.333333 1.944444 -28.444445 134 106 78 
10.388889 1.944444 -28.444445 136 107 78 
10.408304 1.937716 -28.346022 138 107 79 
10.463668 1.937716 -28.346022 141 108 84 
10.519032 1.937716 -28.346022 142 106 87 
10.574394 1.937716 -28.346022 141 104 87 
10.629758 1.937716 -28.346022 138 103 86 
10.685122 1.937716 -28.346022 136 102 85 
10.740484 1.937716 -28.346022 135 103 83 
10.795848 1.937716 -28.346022 134 104 82 
10.851212 1.937716 -28.346022 133 104 82 
10.906574 1.937716 -28.346022 131 104 83 
10.961938 1.937716 -28.346022 129 102 85 
11.055555 1.944444 -28.444445 127 102 87 
2.495080 0.423921 -6.201363 117 101 79 
2.505295 0.423601 -6.196671 118 102 77 
2.513595 0.422961 -6.187311 120 103 78 
2.521870 0.422323 -6.177979 121 104 80 
2.533937 0.422323 -6.177979 122 105 85 
2.546003 0.422323 -6.177979 122 105 90 
2.558069 0.422323 -6.177979 120 103 93 
2.572075 0.422642 -6.182642 114 100 93 
5.625000 0.729167 -10.666667 191 183 161 
5.616580 0.725389 -10.611399 174 165 146 
5.630013 0.724450 -10.597672 159 151 134 
5.636129 0.722581 -10.570323 158 151 135 
5.671410 0.724450 -10.597672 157 153 138 
11.457287 1.407035 -20.582914 167 166 146 
11.354838 1.389578 -20.327543 166 164 141 
11.200000 1.365854 -19.980488 167 163 139 
11.239024 1.365854 -19.980488 169 164 143 
11.142169 1.349398 -19.739759 174 167 148 
4.705883 0.567951 -8.308316 178 171 154 
4.693548 0.564516 -8.258064 186 178 163 
4.709677 0.564516 -8.258064 191 183 169 
3.166667 0.364583 -5.333333 222 223 211 
3.177083 0.364583 -5.333333 222 222 210 
3.187500 0.364583 -5.333333 221 221 209 
3.197917 0.364583 -5.333333 219 220 206 
3.208333 0.364583 -5.333333 217 216 200 
3.218750 0.364583 -5.333333 210 209 190 
3.243950 0.366252 -5.357750 204 202 180 
-8.111888 1.902098 -28.643356 192 193 197 
-8.027875 1.895470 -28.543554 193 193 196 
-7.944445 1.888889 -28.444445 193 193 196 
-7.861592 1.882353 -28.346022 193 194 198 
-7.752577 1.869416 -28.151203 194 195 199 
-7.567567 1.837838 -27.675676 193 194 199 
-7.438127 1.819398 -27.397993 191 193 198 
-7.335548 1.807309 -27.215946 191 193 198 
-7.258278 1.801324 -27.125828 191 194 198 
-7.181518 1.795380 -27.036304 192 196 197 
-7.105263 1.789474 -26.947369 192 197 197 
-7.052631 1.789474 -26.947369 192 198 197 
-7.023102 1.795380 -27.036304 190 196 196 
-7.063545 1.819398 -27.397993 189 194 194 
-7.010034 1.819398 -27.397993 189 193 193 
-6.956522 1.819398 -27.397993 190 192 193 
-6.811881 1.795380 -27.036304 192 192 194 
-6.759076 1.795380 -27.036304 193 191 195 
-0.389701 0.378566 -5.700766 82 73 69 
-0.378040 0.378040 -5.692842 86 74 71 
-0.366412 0.377516 -5.684941 94 77 75 
-0.354816 0.376992 -5.677062 106 84 82 
-0.343728 0.376992 -5.677062 114 88 85 
-0.332410 0.376731 -5.673130 120 88 86 
-0.321330 0.376731 -5.673130 123 89 86 
-0.310035 0.376471 -5.669204 120 89 83 
-0.298962 0.376471 -5.669204 116 87 78 
-0.287491 0.375950 -5.661368 114 86 76 
-0.275482 0.374656 -5.641873 116 87 76 
-0.264099 0.374140 -5.634113 116 88 75 
-0.253095 0.374140 -5.634113 116 89 75 
-0.242257 0.374398 -5.637990 115 88 75 
-0.231246 0.374398 -5.637990 113 86 74 
-0.220538 0.374914 -5.645761 110 83 73 
-0.209511 0.374914 -5.645761 109 82 74 
-0.198484 0.374914 -5.645761 107 81 75 
-0.187716 0.375431 -5.653554 106 80 74 
-0.134548 0.381219 -5.740715 103 76 65 
-0.123336 0.381219 -5.740715 103 75 65 
-0.112360 0.382022 -5.752809 103 76 67 
-0.101124 0.382022 -5.752809 102 75 67 
-0.089888 0.382022 -5.752809 100 74 69 
-0.078596 0.381754 -5.748772 98 73 68 
-0.067368 0.381754 -5.748772 96 72 67 
-0.056140 0.381754 -5.748772 95 71 66 
-0.044944 0.382022 -5.752809 94 72 66 
-0.033684 0.381754 -5.748772 95 73 67 
-0.022456 0.381754 -5.748772 94 73 67 
-0.011228 0.381754 -5.748772 91 71 65 
0.000000 0.381754 -5.748772 89 70 65 
0.101010 0.343434 -5.171717 97 74 68 
0.111041 0.343218 -5.168454 99 75 69 
0.121136 0.343218 -5.168454 99 75 69 
0.131230 0.343218 -5.168454 102 77 72 
0.141236 0.343001 -5.165195 103 78 73 
0.151420 0.343218 -5.168454 102 76 72 
0.161514 0.343218 -5.168454 104 77 73 
0.171717 0.343434 -5.171717 106 78 73 
0.181818 0.343434 -5.171717 110 79 73 
0.191919 0.343434 -5.171717 113 80 72 
0.202404 0.344086 -5.181530 114 79 70 
0.214286 0.346939 -5.224490 114 78 68 
0.268097 0.364611 -5.490617 115 79 67 
0.278820 0.364611 -5.490617 118 80 69 
0.289933 0.365101 -5.497987 122 80 72 
0.300873 0.365346 -5.501679 126 82 76 
0.311828 0.365591 -5.505376 130 85 81 
0.322581 0.365591 -5.505376 133 88 88 
0.333333 0.365591 -5.505376 136 91 93 
0.344549 0.366083 -5.512786 143 98 103 
0.355556 0.366330 -5.516498 157 112 119 
0.366577 0.366577 -5.520216 181 136 146 
0.378890 0.368065 -5.542625 203 158 169 
10.388889 1.888889 -28.444445 137 106 79 
10.444445 1.888889 -28.444445 137 106 80 
10.463668 1.882353 -28.346022 139 106 83 
10.519032 1.882353 -28.346022 142 107 87 
10.574394 1.882353 -28.346022 141 105 89 
10.629758 1.882353 -28.346022 136 103 88 
10.685122 1.882353 -28.346022 133 101 86 
10.740484 1.882353 -28.346022 133 102 85 
10.795848 1.882353 -28.346022 132 102 84 
10.851212 1.882353 -28.346022 130 102 84 
10.868965 1.875862 -28.248276 129 102 86 
10.961938 1.882353 -28.346022 127 101 87 
11.017301 1.882353 -28.346022 122 98 86 
2.493192 0.411498 -6.196671 119 102 84 
2.503401 0.411187 -6.191988 119 102 81 
2.513595 0.410876 -6.187311 121 102 81 
2.521870 0.410256 -6.177979 122 103 83 
2.533937 0.410256 -6.177979 123 105 89 
2.546003 0.410256 -6.177979 124 106 94 
2.558069 0.410256 -6.177979 122 105 97 
2.570136 0.410256 -6.177979 113 101 95 
5.617685 0.707412 -10.652796 190 182 164 
5.609314 0.703752 -10.597672 171 162 148 
5.615484 0.701935 -10.570323 156 149 135 
5.621622 0.700129 -10.543115 157 151 136 
5.642214 0.700129 -10.543115 158 154 140 
11.515152 1.373737 -20.686869 168 164 144 
11.383084 1.353234 -20.378109 166 161 140 
11.227384 1.330073 -20.029341 168 162 140 
11.239024 1.326829 -19.980488 170 164 144 
11.142169 1.310843 -19.739759 172 166 147 
4.686869 0.549495 -8.274748 176 170 153 
4.688822 0.547835 -8.249748 186 178 163 
4.704935 0.547835 -8.249748 191 183 170 
3.166667 0.354167 -5.333333 223 223 211 
3.177083 0.354167 -5.333333 222 222 210 
3.187500 0.354167 -5.333333 221 221 209 
3.197917 0.354167 -5.333333 219 219 206 
3.208333 0.354167 -5.333333 214 213 198 
3.218750 0.354167 -5.333333 207 207 188 
3.243950 0.355788 -5.357750 201 200 179 
-8.055944 1.846154 -28.643356 192 193 195 
-7.944445 1.833333 -28.444445 192 192 194 
-7.888889 1.833333 -28.444445 192 193 197 
-7.752577 1.814433 -28.151203 193 194 199 
-7.593220 1.789831 -27.769491 192 194 199 
-7.438127 1.765886 -27.397993 190 193 198 
-7.335548 1.754153 -27.215946 189 193 197 
-7.282392 1.754153 -27.215946 190 195 198 
-7.181518 1.742574 -27.036304 191 196 197 
-7.105263 1.736842 -26.947369 191 197 197 
-7.052631 1.736842 -26.947369 191 197 197 
-7.046358 1.748344 -27.125828 190 196 196 
-7.063545 1.765886 -27.397993 190 194 195 
-7.010034 1.765886 -27.397993 190 193 195 
-6.956522 1.765886 -27.397993 192 192 194 
-6.789474 1.736842 -26.947369 193 192 195 
-6.736842 1.736842 -26.947369 193 191 196 
-6.640523 1.725490 -26.771242 193 190 197 
-0.378040 0.366921 -5.692842 87 74 71 
-0.366412 0.366412 -5.684941 96 79 76 
-0.354816 0.365904 -5.677062 110 89 84 
-0.343490 0.365651 -5.673130 117 91 86 
-0.332410 0.365651 -5.673130 122 91 87 
-0.321330 0.365651 -5.673130 123 90 86 
-0.310035 0.365398 -5.669204 121 89 84 
-0.298962 0.365398 -5.669204 118 88 82 
-0.287491 0.364893 -5.661368 118 88 82 
-0.275482 0.363636 -5.641873 117 87 80 
-0.264099 0.363136 -5.634113 116 87 76 
-0.253095 0.363136 -5.634113 116 88 75 
-0.242257 0.363386 -5.637990 116 88 76 
-0.231405 0.363636 -5.641873 114 86 75 
-0.220538 0.363887 -5.645761 111 83 74 
-0.209655 0.364138 -5.649655 111 82 74 
-0.198621 0.364138 -5.649655 110 81 74 
-0.187975 0.364893 -5.661368 108 79 73 
-0.177040 0.365145 -5.665284 108 77 72 
-0.134548 0.370007 -5.740715 106 77 69 
-0.123249 0.369748 -5.736695 106 77 69 
-0.112202 0.370266 -5.744740 105 77 68 
-0.101124 0.370787 -5.752809 104 77 69 
-0.089825 0.370526 -5.748772 101 77 71 
-0.078596 0.370526 -5.748772 98 76 70 
-0.067321 0.370266 -5.744740 96 75 68 
-0.056140 0.370526 -5.748772 95 74 67 
-0.044912 0.370526 -5.748772 94 74 67 
-0.033684 0.370526 -5.748772 94 74 66 
-0.022456 0.370526 -5.748772 94 74 66 
-0.011228 0.370526 -5.748772 93 73 65 
0.090909 0.333333 -5.171717 99 73 65 
0.101010 0.333333 -5.171717 102 75 67 
0.111111 0.333333 -5.171717 103 76 69 
0.121136 0.333123 -5.168454 104 75 69 
0.131230 0.333123 -5.168454 105 76 70 
0.141325 0.333123 -5.168454 107 77 72 
0.151420 0.333123 -5.168454 107 77 73 
0.161616 0.333333 -5.171717 108 78 75 
0.171717 0.333333 -5.171717 108 78 75 
0.181818 0.333333 -5.171717 110 79 75 
0.192040 0.333544 -5.174984 111 80 74 
0.202404 0.333966 -5.181530 111 80 72 
0.214559 0.337165 -5.231162 112 80 71 
0.268276 0.354125 -5.494299 113 79 67 
0.278820 0.353887 -5.490617 117 80 68 
0.289933 0.354362 -5.497987 122 81 72 
0.300671 0.354362 -5.497987 126 82 75 
0.311619 0.354600 -5.501679 129 84 79 
0.322581 0.354839 -5.505376 133 86 86 
0.333333 0.354839 -5.505376 137 90 92 
0.344086 0.354839 -5.505376 142 96 101 
0.354839 0.354839 -5.505376 155 110 117 
0.365837 0.355077 -5.509079 179 134 142 
0.377358 0.355795 -5.520216 201 156 166 
5.581395 1.754153 -27.215946 108 84 77 
5.615894 1.748344 -27.125828 108 85 75 
5.668874 1.748344 -27.125828 107 83 71 
5.760000 1.760000 -27.306667 108 84 71 
5.813334 1.760000 -27.306667 109 85 70 
5.866667 1.760000 -27.306667 111 85 70 
5.920000 1.760000 -27.306667 110 84 68 
5.973333 1.760000 -27.306667 108 84 66 
6.006645 1.754153 -27.215946 111 88 69 
5.590909 1.500000 -23.272728 109 88 67 
5.789174 1.504274 -23.339031 147 118 95 
5.834758 1.504274 -23.339031 141 114 92 
5.880342 1.504274 -23.339031 113 90 69 
5.942857 1.508571 -23.405714 95 75 57 
10.388889 1.833333 -28.444445 137 106 82 
10.444445 1.833333 -28.444445 137 105 82 
10.463668 1.826990 -28.346022 138 105 84 
10.519032 1.826990 -28.346022 142 109 89 
10.611111 1.833333 -28.444445 141 108 90 
10.666667 1.833333 -28.444445 137 105 89 
10.685122 1.826990 -28.346022 132 102 86 
10.740484 1.826990 -28.346022 130 102 85 
10.795848 1.826990 -28.346022 129 102 83 
10.813793 1.820690 -28.248276 128 102 84 
10.868965 1.820690 -28.248276 127 102 86 
10.961938 1.826990 -28.346022 125 100 86 
11.017301 1.826990 -28.346022 121 98 86 
2.493192 0.399395 -6.196671 120 102 86 
2.501511 0.398792 -6.187311 121 102 85 
2.511698 0.398491 -6.182642 123 102 85 
2.521870 0.398190 -6.177979 123 102 86 
2.532027 0.397890 -6.173323 124 104 90 
2.546003 0.398190 -6.177979 123 105 93 
2.556142 0.397890 -6.173323 119 104 95 
2.570136 0.398190 -6.177979 112 101 92 
5.610390 0.685714 -10.638961 189 180 167 
5.609314 0.683053 -10.597672 171 162 151 
5.608247 0.680412 -10.556701 157 150 138 
5.607189 0.677792 -10.516047 156 152 139 
5.627728 0.677792 -10.516047 157 153 141 
11.544304 1.336709 -20.739241 168 165 145 
11.411471 1.316708 -20.428928 167 163 142 
11.254902 1.294118 -20.078432 167 162 141 
11.157385 1.278450 -19.835352 168 163 142 
4.680162 0.534413 -8.291498 171 166 145 
4.682139 0.532795 -8.266397 175 170 150 
4.684104 0.531187 -8.241448 185 179 161 
4.700201 0.531187 -8.241448 193 186 169 
3.166667 0.343750 -5.333333 224 224 211 
3.177083 0.343750 -5.333333 223 222 210 
3.187500 0.343750 -5.333333 220 220 208 
3.197917 0.343750 -5.333333 217 217 204 
3.208333 0.343750 -5.333333 211 211 196 
3.218750 0.343750 -5.333333 206 207 188 
3.243950 0.345324 -5.357750 200 201 179 
-8.055944 1.790210 -28.643356 191 193 194 
-7.944445 1.777778 -28.444445 191 193 194 
-7.888889 1.777778 -28.444445 191 194 196 
-7.752577 1.759450 -28.151203 192 195 198 
-7.593220 1.735593 -27.769491 191 194 199 
-7.463087 1.718121 -27.489933 190 194 198 
-7.360000 1.706667 -27.306667 189 194 197 
-7.282392 1.700997 -27.215946 190 195 197 
-7.181518 1.689769 -27.036304 190 195 197 
-7.105263 1.684211 -26.947369 189 195 197 
-7.052631 1.684211 -26.947369 190 195 197 
-7.046358 1.695364 -27.125828 190 195 197 
-7.040000 1.706667 -27.306667 190 194 196 
-6.986667 1.706667 -27.306667 192 193 197 
-6.933333 1.706667 -27.306667 193 193 197 
-6.789474 1.684211 -26.947369 194 192 197 
-6.692811 1.673203 -26.771242 193 192 197 
-6.640523 1.673203 -26.771242 192 191 197 
-6.609836 1.678689 -26.859016 192 191 197 
-0.378040 0.355803 -5.692842 91 77 71 
-0.366412 0.355309 -5.684941 101 83 77 
-0.354816 0.354816 -5.677062 113 92 83 
-0.343490 0.354571 -5.673130 118 93 83 
-0.332410 0.354571 -5.673130 122 91 84 
-0.321107 0.354325 -5.669204 124 90 84 
-0.310035 0.354325 -5.669204 122 89 82 
-0.298755 0.354080 -5.665284 119 88 81 
-0.287095 0.353347 -5.653554 118 88 80 
-0.275292 0.352374 -5.637990 118 86 79 
-0.264099 0.352132 -5.634113 117 85 76 
-0.252921 0.351890 -5.630240 118 86 76 
-0.242257 0.352374 -5.637990 119 87 77 
-0.231405 0.352617 -5.641873 117 86 76 
-0.220538 0.352860 -5.645761 114 82 73 
-0.209655 0.353103 -5.649655 113 81 73 
-0.198621 0.353103 -5.649655 113 82 75 
-0.187845 0.353591 -5.657459 112 80 74 
-0.176918 0.353836 -5.661368 111 78 74 
-0.166090 0.354325 -5.669204 112 79 76 
-0.123249 0.358543 -5.736695 108 78 73 
-0.112045 0.358543 -5.736695 106 77 71 
-0.101053 0.359298 -5.748772 105 77 70 
-0.089825 0.359298 -5.748772 103 78 71 
-0.078541 0.359046 -5.744740 99 77 69 
-0.067321 0.359046 -5.744740 97 74 67 
-0.056101 0.359046 -5.744740 96 74 66 
-0.044881 0.359046 -5.744740 97 74 67 
-0.033684 0.359298 -5.748772 97 75 67 
0.080757 0.323028 -5.168454 101 73 64 
0.090909 0.323232 -5.171717 103 74 63 
0.101010 0.323232 -5.171717 104 74 64 
0.111111 0.323232 -5.171717 104 74 65 
0.121212 0.323232 -5.171717 105 74 65 
0.131230 0.323028 -5.168454 107 75 66 
0.141325 0.323028 -5.168454 110 76 68 
0.151515 0.323232 -5.171717 111 77 70 
0.161616 0.323232 -5.171717 110 78 74 
0.171826 0.323436 -5.174984 109 78 75 
0.181933 0.323436 -5.174984 110 79 75 
0.192162 0.323641 -5.178256 110 79 75 
0.278820 0.343164 -5.490617 119 82 73 
0.289544 0.343164 -5.490617 123 83 76 
0.300671 0.343624 -5.497987 127 84 79 
0.311409 0.343624 -5.497987 131 86 84 
0.322148 0.343624 -5.497987 133 87 88 
0.332886 0.343624 -5.497987 135 89 92 
0.343394 0.343394 -5.494299 140 96 100 
0.354125 0.343394 -5.494299 150 107 113 
0.365101 0.343624 -5.497987 174 130 138 
0.376091 0.343855 -5.501679 195 152 161 
0.388140 0.345013 -5.520216 212 167 179 
5.528239 1.700997 -27.215946 105 83 75 
5.562914 1.695364 -27.125828 109 86 77 
5.578948 1.684211 -26.947369 109 87 76 
5.631579 1.684211 -26.947369 107 84 72 
5.721854 1.695364 -27.125828 107 84 70 
5.813334 1.706667 -27.306667 109 84 69 
5.866667 1.706667 -27.306667 111 85 69 
5.920000 1.706667 -27.306667 110 84 67 
5.953488 1.700997 -27.215946 108 84 63 
6.006645 1.700997 -27.215946 111 88 64 
6.059801 1.700997 -27.215946 113 90 66 
5.545455 1.454545 -23.272728 113 91 74 
5.590909 1.454545 -23.272728 111 90 71 
5.636364 1.454545 -23.272728 112 90 70 
5.698006 1.458689 -23.339031 121 96 74 
5.743590 1.458689 -23.339031 132 104 80 
5.789174 1.458689 -23.339031 146 115 91 
5.834758 1.458689 -23.339031 144 114 93 
5.880342 1.458689 -23.339031 117 89 72 
5.942857 1.462857 -23.405714 98 74 59 
5.988572 1.462857 -23.405714 99 79 65 
6.171429 1.462857 -23.405714 123 99 76 
10.444445 1.777778 -28.444445 138 107 85 
10.463668 1.771626 -28.346022 138 107 86 
10.519032 1.771626 -28.346022 139 109 89 
10.574394 1.771626 -28.346022 139 110 89 
10.629758 1.771626 -28.346022 136 108 88 
10.685122 1.771626 -28.346022 131 105 85 
10.740484 1.771626 -28.346022 130 104 84 
10.795848 1.771626 -28.346022 130 105 84 
10.813793 1.765517 -28.248276 128 104 84 
10.868965 1.765517 -28.248276 125 102 84 
10.961938 1.771626 -28.346022 124 101 84 
2.491308 0.386999 -6.191988 122 101 87 
2.499623 0.386415 -6.182642 123 102 87 
2.509804 0.386124 -6.177979 123 102 85 
2.519970 0.385833 -6.173323 123 102 85 
2.532027 0.385833 -6.173323 122 102 87 
2.544084 0.385833 -6.173323 120 102 89 
2.556142 0.385833 -6.173323 115 101 88 
2.568199 0.385833 -6.173323 108 98 86 
5.603113 0.664073 -10.625162 188 178 167 
5.602067 0.661499 -10.583980 172 163 154 
5.608247 0.659794 -10.556701 156 150 139 
5.607189 0.657253 -10.516047 154 151 139 
5.627728 0.657253 -10.516047 157 154 142 
11.772020 1.326425 -21.222797 169 168 148 
11.573604 1.299492 -20.791878 167 167 146 
11.440000 1.280000 -20.480000 166 165 145 
11.282556 1.257985 -20.127764 165 163 142 
11.157385 1.239709 -19.835352 165 162 140 
4.665994 0.516650 -8.266397 169 166 142 
4.677419 0.516129 -8.258064 176 172 148 
4.679397 0.514573 -8.233166 185 180 158 
4.695477 0.514573 -8.233166 192 187 166 
3.166667 0.333333 -5.333333 223 223 211 
3.177083 0.333333 -5.333333 222 221 209 
3.187500 0.333333 -5.333333 219 219 207 
3.197917 0.333333 -5.333333 216 216 203 
3.208333 0.333333 -5.333333 210 211 195 
3.218750 0.333333 -5.333333 205 206 187 
3.243950 0.334859 -5.357750 200 202 179 
-8.055944 1.734266 -28.643356 190 194 195 
-7.972126 1.728223 -28.543554 190 195 195 
-7.888889 1.722222 -28.444445 190 195 196 
-7.779310 1.710345 -28.248276 190 195 197 
-7.619048 1.687075 -27.863945 190 195 198 
-7.463087 1.664430 -27.489933 190 195 198 
-7.384615 1.658863 -27.397993 189 194 197 
-7.306667 1.653333 -27.306667 189 194 196 
-7.205298 1.642384 -27.125828 190 194 197 
-7.128713 1.636964 -27.036304 189 193 197 
-7.075908 1.636964 -27.036304 189 194 197 
-7.023102 1.636964 -27.036304 188 193 196 
-7.016611 1.647840 -27.215946 189 194 197 
-6.963455 1.647840 -27.215946 191 194 197 
-6.910299 1.647840 -27.215946 192 193 197 
-6.789474 1.631579 -26.947369 193 192 197 
-6.692811 1.620915 -26.771242 192 193 198 
-6.640523 1.620915 -26.771242 192 193 199 
-6.609836 1.626230 -26.859016 193 193 198 
-6.557377 1.626230 -26.859016 193 193 198 
-0.378303 0.344923 -5.696801 92 75 67 
-0.366667 0.344444 -5.688889 103 83 74 
-0.354816 0.343728 -5.677062 112 91 79 
-0.343490 0.343490 -5.673130 118 93 80 
-0.332410 0.343490 -5.673130 124 92 82 
-0.321107 0.343253 -5.669204 125 90 81 
-0.309820 0.343015 -5.665284 123 88 80 
-0.298549 0.342778 -5.661368 120 87 78 
-0.286699 0.341833 -5.645761 118 86 77 
-0.275103 0.341128 -5.634113 119 85 77 
-0.263918 0.340893 -5.630240 121 86 77 
-0.252921 0.340893 -5.630240 122 87 78 
-0.241924 0.340893 -5.630240 122 88 79 
-0.231246 0.341363 -5.637990 120 87 78 
-0.220386 0.341598 -5.641873 116 84 74 
-0.209511 0.341833 -5.645761 114 82 73 
-0.198621 0.342069 -5.649655 115 84 75 
-0.187586 0.342069 -5.649655 114 83 76 
-0.176552 0.342069 -5.649655 113 82 78 
-0.165746 0.342541 -5.657459 113 82 79 
-0.155664 0.344684 -5.692842 111 79 77 
-0.123249 0.347339 -5.736695 108 78 73 
-0.112045 0.347339 -5.736695 108 77 71 
-0.101053 0.348070 -5.748772 107 77 70 
-0.089825 0.348070 -5.748772 107 79 71 
-0.078541 0.347826 -5.744740 103 77 69 
-0.067321 0.347826 -5.744740 100 74 65 
-0.056101 0.347826 -5.744740 98 73 65 
-0.044881 0.347826 -5.744740 97 72 65 
0.080706 0.312736 -5.165195 104 74 65 
0.090852 0.312934 -5.168454 107 75 65 
0.101010 0.313131 -5.171717 106 74 64 
0.111111 0.313131 -5.171717 106 73 63 
0.121212 0.313131 -5.171717 107 72 62 
0.131313 0.313131 -5.171717 109 73 63 
0.141414 0.313131 -5.171717 112 75 65 
0.151515 0.313131 -5.171717 113 76 67 
0.161718 0.313329 -5.174984 112 77 71 
0.171934 0.313527 -5.178256 111 78 73 
0.182163 0.313726 -5.181530 110 77 74 
0.278820 0.332440 -5.490617 121 82 78 
0.289350 0.332217 -5.486939 125 85 81 
0.300268 0.332440 -5.490617 128 87 84 
0.311201 0.332663 -5.494299 130 88 88 
0.321932 0.332663 -5.494299 130 88 90 
0.332440 0.332440 -5.490617 133 91 94 
0.342704 0.331995 -5.483266 137 96 101 
0.353414 0.331995 -5.483266 147 108 113 
0.364123 0.331995 -5.483266 171 130 138 
0.375084 0.332217 -5.486939 190 149 158 
0.386837 0.333109 -5.501679 205 163 175 
5.513514 1.675676 -27.675676 111 89 79 
5.475083 1.647840 -27.215946 110 89 78 
5.509934 1.642384 -27.125828 107 84 73 
5.562914 1.642384 -27.125828 105 82 70 
5.578948 1.631579 -26.947369 107 84 71 
5.631579 1.631579 -26.947369 107 84 70 
5.721854 1.642384 -27.125828 107 84 69 
5.813334 1.653333 -27.306667 109 85 69 
5.866667 1.653333 -27.306667 110 85 69 
5.920000 1.653333 -27.306667 110 84 66 
5.953488 1.647840 -27.215946 108 84 60 
6.006645 1.647840 -27.215946 109 85 58 
6.059801 1.647840 -27.215946 113 89 62 
5.545455 1.409091 -23.272728 114 90 77 
5.590909 1.409091 -23.272728 113 91 76 
5.636364 1.409091 -23.272728 113 91 73 
5.698006 1.413105 -23.339031 120 95 74 
5.743590 1.413105 -23.339031 133 104 81 
5.789174 1.413105 -23.339031 146 114 90 
5.834758 1.413105 -23.339031 143 109 92 
5.880342 1.413105 -23.339031 117 86 73 
5.942857 1.417143 -23.405714 100 72 60 
5.988572 1.417143 -23.405714 99 75 64 
6.051576 1.421203 -23.472780 104 83 71 
6.097421 1.421203 -23.472780 115 93 78 
6.125714 1.417143 -23.405714 123 99 80 
6.171429 1.417143 -23.405714 126 100 79 
6.217143 1.417143 -23.405714 130 104 81 
10.444445 1.722222 -28.444445 135 106 85 
10.463668 1.716263 -28.346022 136 108 87 
10.519032 1.716263 -28.346022 136 109 88 
10.574394 1.716263 -28.346022 136 111 89 
10.629758 1.716263 -28.346022 135 111 88 
10.685122 1.716263 -28.346022 130 107 84 
10.740484 1.716263 -28.346022 128 106 82 
10.795848 1.716263 -28.346022 128 106 83 
10.851212 1.716263 -28.346022 128 107 84 
10.906574 1.716263 -28.346022 125 104 83 
2.489426 0.374622 -6.187311 121 99 86 
2.499623 0.374340 -6.182642 121 100 86 
2.509804 0.374057 -6.177979 123 102 84 
2.519970 0.373775 -6.173323 124 104 85 
2.532027 0.373775 -6.173323 121 102 86 
2.544084 0.373775 -6.173323 118 101 86 
2.556142 0.373775 -6.173323 112 99 85 
2.568199 0.373775 -6.173323 106 98 83 
5.595855 0.642487 -10.611399 187 178 166 
5.594839 0.640000 -10.570323 172 165 154 
5.593830 0.637532 -10.529563 156 152 141 
5.607189 0.636714 -10.516047 154 152 140 
5.613316 0.635083 -10.489117 158 156 144 
5.633803 0.635083 -10.489117 161 159 146 
11.772020 1.284974 -21.222797 166 168 147 
11.603053 1.262087 -20.844784 166 168 147 
11.440000 1.240000 -20.480000 165 166 145 
11.310345 1.221675 -20.177340 162 163 142 
11.184466 1.203884 -19.883495 163 163 140 
4.661290 0.500000 -8.258064 167 166 142 
4.677419 0.500000 -8.258064 174 171 147 
4.679397 0.498492 -8.233166 180 177 152 
4.695477 0.498492 -8.233166 187 183 159 
3.166667 0.322917 -5.333333 222 222 210 
3.177083 0.322917 -5.333333 220 220 208 
3.187500 0.322917 -5.333333 218 218 206 
3.197917 0.322917 -5.333333 215 216 203 
3.208333 0.322917 -5.333333 211 212 196 
3.218750 0.322917 -5.333333 206 207 188 
3.243950 0.324395 -5.357750 199 201 178 
-8.405797 1.739130 -29.681160 190 195 197 
-8.055944 1.678322 -28.643356 189 196 195 
-7.972126 1.672474 -28.543554 188 197 194 
-7.888889 1.666667 -28.444445 188 196 195 
-7.779310 1.655172 -28.248276 189 195 196 
-7.619048 1.632653 -27.863945 190 195 198 
-7.463087 1.610738 -27.489933 191 196 199 
-7.384615 1.605351 -27.397993 190 195 197 
-7.306667 1.600000 -27.306667 190 194 196 
-7.205298 1.589404 -27.125828 191 194 197 
-7.128713 1.584158 -27.036304 190 193 197 
-7.052631 1.578947 -26.947369 188 192 196 
-7.000000 1.578947 -26.947369 188 192 196 
-6.970297 1.584158 -27.036304 189 194 197 
-6.917492 1.584158 -27.036304 190 193 197 
-6.864686 1.584158 -27.036304 191 193 197 
-6.789474 1.578947 -26.947369 192 193 198 
-6.692811 1.568627 -26.771242 190 194 198 
-6.640523 1.568627 -26.771242 190 194 198 
-6.588235 1.568627 -26.771242 191 194 198 
-6.557377 1.573771 -26.859016 193 193 197 
-0.378303 0.333797 -5.696801 94 74 68 
-0.366667 0.333333 -5.688889 105 82 74 
-0.355062 0.332871 -5.680999 112 88 77 
-0.343490 0.332410 -5.673130 119 91 80 
-0.332410 0.332410 -5.673130 126 92 83 
-0.320885 0.331950 -5.665284 127 90 82 
-0.309606 0.331721 -5.661368 125 88 80 
-0.298549 0.331721 -5.661368 122 87 79 
-0.286501 0.330579 -5.641873 121 86 78 
-0.274914 0.329897 -5.630240 122 85 77 
-0.263736 0.329670 -5.626374 123 86 79 
-0.252747 0.329670 -5.626374 122 87 79 
-0.241924 0.329897 -5.630240 121 87 78 
-0.231246 0.330351 -5.637990 118 86 77 
-0.220234 0.330351 -5.637990 115 85 75 
-0.209222 0.330351 -5.637990 112 84 74 
-0.198211 0.330351 -5.637990 112 85 74 
-0.187199 0.330351 -5.637990 112 86 75 
-0.176187 0.330351 -5.637990 112 85 77 
-0.165403 0.330806 -5.645761 111 84 77 
-0.155989 0.334262 -5.704735 110 82 76 
-0.123249 0.336134 -5.736695 109 78 70 
-0.112045 0.336134 -5.736695 110 78 69 
-0.101053 0.336842 -5.748772 111 78 68 
-0.089825 0.336842 -5.748772 109 77 67 
-0.078541 0.336606 -5.744740 105 75 65 
-0.067321 0.336606 -5.744740 103 74 64 
-0.056101 0.336606 -5.744740 101 73 64 
0.010724 0.321716 -5.490617 96 71 68 
0.090967 0.303222 -5.174984 110 76 70 
0.101074 0.303222 -5.174984 109 75 68 
0.111181 0.303222 -5.174984 109 74 67 
0.121289 0.303222 -5.174984 110 72 65 
0.131396 0.303222 -5.174984 111 73 64 
0.141503 0.303222 -5.174984 112 73 64 
0.151707 0.303413 -5.178256 114 74 65 
0.218182 0.311688 -5.319480 111 76 73 
0.228571 0.311688 -5.319480 114 78 74 
0.278447 0.321285 -5.483266 122 83 80 
0.288770 0.320856 -5.475936 125 85 83 
0.299666 0.321070 -5.479599 126 87 85 
0.310784 0.321500 -5.486939 126 88 87 
0.321500 0.321500 -5.486939 127 90 90 
0.331773 0.321070 -5.479599 130 94 96 
0.341789 0.320427 -5.468625 134 99 102 
0.352235 0.320213 -5.464977 147 112 117 
0.362909 0.320213 -5.464977 167 130 137 
0.373832 0.320427 -5.468625 183 145 155 
0.385800 0.321500 -5.486939 198 159 171 
5.069307 1.584158 -27.036304 111 82 75 
5.122112 1.584158 -27.036304 111 84 74 
5.226666 1.600000 -27.306667 111 84 73 
5.406143 1.638225 -27.959044 110 83 72 
5.460751 1.638225 -27.959044 109 84 72 
5.441077 1.616162 -27.582491 108 85 73 
5.421927 1.594684 -27.215946 109 86 74 
5.456954 1.589404 -27.125828 109 85 73 
5.509934 1.589404 -27.125828 107 83 69 
5.562914 1.589404 -27.125828 106 82 66 
5.578948 1.578947 -26.947369 107 83 67 
5.631579 1.578947 -26.947369 105 82 65 
5.721854 1.589404 -27.125828 106 83 66 
5.813334 1.600000 -27.306667 108 85 67 
5.866667 1.600000 -27.306667 108 84 66 
5.920000 1.600000 -27.306667 107 83 65 
5.953488 1.594684 -27.215946 107 83 60 
6.006645 1.594684 -27.215946 109 83 59 
5.545455 1.363636 -23.272728 115 90 79 
5.590909 1.363636 -23.272728 112 89 76 
5.652421 1.367521 -23.339031 112 89 74 
5.714286 1.371429 -23.405714 117 90 75 
5.743590 1.367521 -23.339031 130 99 83 
5.789174 1.367521 -23.339031 148 114 97 
5.834758 1.367521 -23.339031 144 109 96 
5.880342 1.367521 -23.339031 117 85 75 
5.942857 1.371429 -23.405714 98 70 61 
5.988572 1.371429 -23.405714 97 73 65 
6.051576 1.375358 -23.472780 104 82 72 
6.097421 1.375358 -23.472780 116 94 80 
6.143267 1.375358 -23.472780 126 102 85 
6.171429 1.371429 -23.405714 129 103 82 
6.217143 1.371429 -23.405714 132 103 81 
10.444445 1.666667 -28.444445 133 107 86 
10.427587 1.655172 -28.248276 134 110 88 
10.482759 1.655172 -28.248276 133 111 88 
10.574394 1.660900 -28.346022 133 112 88 
10.629758 1.660900 -28.346022 132 112 87 
10.685122 1.660900 -28.346022 128 108 83 
10.740484 1.660900 -28.346022 126 105 81 
10.795848 1.660900 -28.346022 126 106 82 
10.851212 1.660900 -28.346022 127 107 85 
10.944445 1.666667 -28.444445 126 107 85 
2.487547 0.362264 -6.182642 120 97 85 
2.497738 0.361991 -6.177979 121 99 85 
2.507913 0.361718 -6.173323 123 103 86 
2.518072 0.361446 -6.168674 125 106 88 
2.530120 0.361446 -6.168674 123 105 89 
2.542169 0.361446 -6.168674 119 103 89 
2.554217 0.361446 -6.168674 112 100 87 
2.568199 0.361718 -6.173323 105 96 83 
5.574193 0.619355 -10.570323 185 177 162 
5.573265 0.616967 -10.529563 171 164 150 
5.593830 0.616967 -10.529563 157 153 140 
5.600000 0.615385 -10.502564 155 153 141 
5.613316 0.614597 -10.489117 159 158 145 
5.633803 0.614597 -10.489117 160 160 146 
11.772020 1.243523 -21.222797 167 168 148 
11.662404 1.227621 -20.951406 165 166 147 
11.468672 1.203007 -20.531328 164 164 144 
11.338271 1.185185 -20.227161 163 162 142 
11.211679 1.167883 -19.931873 164 163 143 
4.661290 0.483871 -8.258064 167 166 146 
4.672709 0.483384 -8.249748 172 170 149 
4.674699 0.481928 -8.224899 178 176 153 
4.690763 0.481928 -8.224899 185 182 159 
3.166667 0.312500 -5.333333 220 222 210 
3.177083 0.312500 -5.333333 219 221 208 
3.187500 0.312500 -5.333333 218 219 207 
3.197917 0.312500 -5.333333 215 217 203 
3.208333 0.312500 -5.333333 211 212 196 
3.218750 0.312500 -5.333333 206 207 188 
3.243950 0.313931 -5.357750 199 200 177 
-8.405797 1.681159 -29.681160 189 195 197 
-8.055944 1.622378 -28.643356 188 196 194 
-7.944445 1.611111 -28.444445 187 196 193 
-7.861592 1.605536 -28.346022 187 196 194 
-7.779310 1.600000 -28.248276 187 194 196 
-7.619048 1.578231 -27.863945 189 194 197 
-7.463087 1.557047 -27.489933 191 196 198 
-7.360000 1.546667 -27.306667 192 195 197 
-7.258278 1.536424 -27.125828 192 194 196 
-7.181518 1.531353 -27.036304 192 193 197 
-7.105263 1.526316 -26.947369 191 193 198 
-7.052631 1.526316 -26.947369 189 192 197 
-7.000000 1.526316 -26.947369 189 193 198 
-6.947369 1.526316 -26.947369 190 194 198 
-6.894737 1.526316 -26.947369 189 193 197 
-6.842105 1.526316 -26.947369 190 192 197 
-6.767213 1.521312 -26.859016 190 193 198 
-6.692811 1.516340 -26.771242 188 194 198 
-6.618893 1.511401 -26.684038 188 194 198 
-6.588235 1.516340 -26.771242 190 194 197 
-6.535948 1.516340 -26.771242 192 193 197 
-6.504918 1.521312 -26.859016 194 192 197 
-0.378303 0.322670 -5.696801 96 75 70 
-0.366667 0.322222 -5.688889 107 82 77 
-0.355062 0.321775 -5.680999 115 90 82 
-0.343490 0.321330 -5.673130 121 92 85 
-0.332410 0.321330 -5.673130 126 92 85 
-0.320885 0.320885 -5.665284 127 90 84 
-0.309606 0.320663 -5.661368 125 88 82 
-0.298549 0.320663 -5.661368 124 88 82 
-0.286501 0.319559 -5.641873 124 87 81 
-0.274725 0.318681 -5.626374 123 86 80 
-0.263736 0.318681 -5.626374 122 87 81 
-0.252747 0.318681 -5.626374 120 88 81 
-0.241924 0.318900 -5.630240 119 87 79 
-0.231087 0.319120 -5.634113 116 86 77 
-0.220234 0.319339 -5.637990 114 86 75 
-0.209222 0.319339 -5.637990 112 87 74 
-0.198074 0.319120 -5.634113 110 87 74 
-0.187070 0.319120 -5.634113 109 87 73 
-0.176187 0.319339 -5.637990 109 87 74 
-0.165175 0.319339 -5.637990 108 84 73 
-0.155989 0.323120 -5.704735 108 82 72 
-0.133985 0.323796 -5.716678 111 81 71 
-0.123249 0.324930 -5.736695 111 79 69 
-0.112045 0.324930 -5.736695 113 78 67 
-0.101053 0.325614 -5.748772 113 78 65 
-0.089825 0.325614 -5.748772 110 76 64 
-0.078596 0.325614 -5.748772 107 74 64 
-0.067321 0.325386 -5.744740 106 74 65 
-0.056140 0.325614 -5.748772 104 73 65 
0.000000 0.310992 -5.490617 101 73 71 
0.010724 0.310992 -5.490617 100 73 71 
0.021448 0.310992 -5.490617 100 74 71 
0.208605 0.302477 -5.340287 110 76 73 
0.218893 0.302280 -5.336808 111 75 72 
0.229465 0.302477 -5.340287 116 77 75 
0.266312 0.308921 -5.454061 121 83 78 
0.276964 0.308921 -5.454061 124 85 81 
0.287808 0.309127 -5.457695 125 86 83 
0.299065 0.309746 -5.468625 125 88 84 
0.310160 0.310160 -5.475936 125 89 87 
0.320856 0.310160 -5.475936 125 90 89 
0.330887 0.309540 -5.464977 128 95 95 
0.341106 0.309127 -5.457695 131 99 102 
0.351297 0.308716 -5.450432 142 110 115 
0.361943 0.308716 -5.450432 160 126 133 
0.372588 0.308716 -5.450432 177 141 151 
0.383744 0.309127 -5.457695 191 155 167 
0.753078 0.335988 -5.931933 205 170 184 
0.761355 0.334535 -5.906272 210 174 188 
0.770115 0.333333 -5.885057 214 176 191 
0.781048 0.333094 -5.880833 216 178 193 
0.793674 0.333573 -5.889288 221 185 199 
0.808081 0.334776 -5.910534 227 193 207 
0.822592 0.335988 -5.931933 231 198 212 
0.837209 0.337209 -5.953488 234 203 218 
0.856305 0.340176 -6.005865 240 210 226 
0.868035 0.340176 -6.005865 247 219 234 
0.879765 0.340176 -6.005865 254 229 244 
5.000000 1.526316 -26.947369 110 82 77 
5.052631 1.526316 -26.947369 110 83 75 
5.105263 1.526316 -26.947369 112 86 76 
5.174918 1.531353 -27.036304 113 86 77 
5.280000 1.546667 -27.306667 111 85 74 
5.351171 1.551839 -27.397993 108 84 72 
5.386667 1.546667 -27.306667 106 83 70 
5.403974 1.536424 -27.125828 106 83 69 
5.456954 1.536424 -27.125828 106 83 69 
5.509934 1.536424 -27.125828 107 83 67 
5.562914 1.536424 -27.125828 107 82 64 
5.578948 1.526316 -26.947369 107 82 64 
5.631579 1.526316 -26.947369 106 82 63 
5.721854 1.536424 -27.125828 106 82 63 
5.813334 1.546667 -27.306667 106 83 65 
5.866667 1.546667 -27.306667 105 83 65 
5.920000 1.546667 -27.306667 105 83 64 
5.973333 1.546667 -27.306667 107 83 63 
5.545455 1.318182 -23.272728 116 92 78 
5.590909 1.318182 -23.272728 111 89 76 
5.652421 1.321937 -23.339031 111 87 75 
5.714286 1.325714 -23.405714 115 88 76 
5.760000 1.325714 -23.405714 126 95 84 
5.805714 1.325714 -23.405714 145 110 100 
5.834758 1.321937 -23.339031 143 111 101 
5.880342 1.321937 -23.339031 120 91 82 
5.925926 1.321937 -23.339031 98 73 65 
5.988572 1.325714 -23.405714 97 75 67 
6.051576 1.329513 -23.472780 102 82 72 
6.097421 1.329513 -23.472780 112 91 78 
6.143267 1.329513 -23.472780 126 102 85 
6.171429 1.325714 -23.405714 130 103 83 
10.427587 1.600000 -28.248276 133 111 89 
10.482759 1.600000 -28.248276 133 113 89 
10.574394 1.605536 -28.346022 131 113 88 
10.629758 1.605536 -28.346022 130 110 86 
10.685122 1.605536 -28.346022 127 108 83 
10.740484 1.605536 -28.346022 125 106 83 
10.795848 1.605536 -28.346022 124 106 84 
10.888889 1.611111 -28.444445 125 107 86 
10.944445 1.611111 -28.444445 126 107 88 
2.487547 0.350189 -6.182642 119 96 84 
2.495855 0.349661 -6.173323 119 97 84 
2.507913 0.349661 -6.173323 121 102 86 
2.518072 0.349398 -6.168674 122 105 89 
2.530120 0.349398 -6.168674 123 106 91 
2.542169 0.349398 -6.168674 120 104 92 
2.554217 0.349398 -6.168674 113 100 90 
2.566265 0.349398 -6.168674 106 97 87 
5.567010 0.597938 -10.556701 182 175 158 
5.566111 0.595635 -10.516047 169 163 146 
5.579487 0.594872 -10.502564 156 153 138 
5.592830 0.594110 -10.489117 154 154 141 
5.606138 0.593350 -10.475703 157 158 144 
5.626598 0.593350 -10.475703 159 160 146 
11.802597 1.205195 -21.277922 168 168 149 
11.662404 1.186701 -20.951406 167 165 148 
11.497487 1.165829 -20.582914 165 162 145 
11.366337 1.148515 -20.277227 164 161 144 
11.377778 1.145679 -20.227161 164 162 146 
11.223301 1.126214 -19.883495 167 165 150 
4.668008 0.466801 -8.241448 172 170 153 
4.670010 0.465396 -8.216650 179 176 156 
4.686058 0.465396 -8.216650 186 184 162 
3.166667 0.302083 -5.333333 220 223 210 
3.177083 0.302083 -5.333333 219 222 208 
3.187500 0.302083 -5.333333 217 220 206 
3.197917 0.302083 -5.333333 214 217 202 
3.208333 0.302083 -5.333333 210 211 195 
3.218750 0.302083 -5.333333 203 204 185 
3.243950 0.303466 -5.357750 199 199 176 
-8.027875 1.560976 -28.543554 189 195 193 
-7.944445 1.555556 -28.444445 188 195 193 
-7.834483 1.544828 -28.248276 187 195 194 
-7.726027 1.534247 -28.054794 187 195 195 
-7.593220 1.518644 -27.769491 187 195 195 
-7.413333 1.493333 -27.306667 189 195 196 
-7.335548 1.488372 -27.215946 191 195 196 
-7.234324 1.478548 -27.036304 191 194 196 
-7.157895 1.473684 -26.947369 191 194 197 
-7.105263 1.473684 -26.947369 191 193 197 
-7.052631 1.473684 -26.947369 191 192 197 
-6.977049 1.468852 -26.859016 192 194 199 
-6.947369 1.473684 -26.947369 192 194 199 
-6.872131 1.468852 -26.859016 190 193 198 
-6.819672 1.468852 -26.859016 189 193 197 
-6.745098 1.464052 -26.771242 189 193 197 
-6.671010 1.459283 -26.684038 188 194 196 
-6.597403 1.454545 -26.597403 189 193 196 
-6.566775 1.459283 -26.684038 191 193 196 
-6.493506 1.454545 -26.597403 193 193 197 
-6.462541 1.459283 -26.684038 193 193 197 
-0.366921 0.311327 -5.692842 105 85 77 
-0.355309 0.310895 -5.684941 114 90 83 
-0.343728 0.310464 -5.677062 120 91 86 
-0.332410 0.310249 -5.673130 123 92 87 
-0.320885 0.309820 -5.665284 123 91 87 
-0.309606 0.309606 -5.661368 123 89 85 
-0.298549 0.309606 -5.661368 122 89 85 
-0.286304 0.308328 -5.637990 122 88 84 
-0.274725 0.307692 -5.626374 121 87 84 
-0.263736 0.307692 -5.626374 120 88 84 
-0.252747 0.307692 -5.626374 119 88 83 
-0.241924 0.307904 -5.630240 118 87 80 
-0.231087 0.308116 -5.634113 117 87 78 
-0.220234 0.308328 -5.637990 117 87 76 
-0.209222 0.308328 -5.637990 117 88 74 
-0.198074 0.308116 -5.634113 115 87 70 
-0.187070 0.308116 -5.634113 114 86 70 
-0.176187 0.308328 -5.637990 113 85 73 
-0.165175 0.308328 -5.637990 111 83 74 
-0.155880 0.311761 -5.700766 110 81 73 
-0.145455 0.313287 -5.728672 112 81 74 
-0.133891 0.312413 -5.712692 115 82 75 
-0.123077 0.313287 -5.728672 115 80 72 
-0.112045 0.313726 -5.736695 115 78 69 
-0.100982 0.314166 -5.744740 115 78 68 
-0.089825 0.314386 -5.748772 110 76 67 
-0.078596 0.314386 -5.748772 106 75 67 
-0.067368 0.314386 -5.748772 107 76 69 
-0.056140 0.314386 -5.748772 104 75 69 
0.000000 0.300268 -5.490617 106 73 70 
0.010724 0.300268 -5.490617 106 72 70 
0.021448 0.300268 -5.490617 104 74 70 
0.199083 0.293386 -5.364768 112 79 74 
0.209150 0.292810 -5.354249 113 80 75 
0.219178 0.292237 -5.343771 116 80 77 
0.230820 0.293770 -5.371803 120 80 78 
0.242424 0.295125 -5.396574 122 81 78 
0.254136 0.296492 -5.421575 122 82 78 
0.265428 0.297279 -5.435966 123 84 80 
0.276228 0.297477 -5.439575 125 85 83 
0.287425 0.298071 -5.450432 125 85 85 
0.298468 0.298468 -5.457695 125 86 86 
0.309333 0.298667 -5.461333 125 86 88 
0.320000 0.298667 -5.461333 125 86 90 
0.330226 0.298269 -5.454061 128 90 95 
0.340652 0.298071 -5.450432 131 94 101 
0.351064 0.297872 -5.446808 138 103 111 
0.361462 0.297674 -5.443189 156 119 128 
0.372093 0.297674 -5.443189 174 137 148 
0.382979 0.297872 -5.446808 187 151 164 
0.394404 0.298468 -5.457695 202 168 183 
0.735766 0.327007 -5.979562 190 155 164 
0.741492 0.324403 -5.931933 195 159 170 
0.749820 0.322999 -5.906272 202 165 178 
0.758621 0.321839 -5.885057 210 171 185 
0.769010 0.321377 -5.876614 215 176 190 
0.780488 0.321377 -5.876614 219 180 194 
0.791966 0.321377 -5.876614 224 186 201 
0.805176 0.322070 -5.889288 229 194 208 
0.819034 0.322999 -5.906272 232 198 212 
0.834178 0.324403 -5.931933 237 204 219 
0.848837 0.325581 -5.953488 245 214 229 
0.864865 0.327246 -5.983930 249 221 235 
0.877193 0.327485 -5.988304 254 229 244 
0.891496 0.328446 -6.005865 255 236 251 
5.000000 1.473684 -26.947369 105 82 75 
5.036066 1.468852 -26.859016 108 83 73 
5.105263 1.473684 -26.947369 111 85 75 
5.157895 1.473684 -26.947369 112 87 76 
5.227723 1.478548 -27.036304 111 87 74 
5.333333 1.493333 -27.306667 109 86 73 
5.386667 1.493333 -27.306667 109 86 73 
5.421927 1.488372 -27.215946 108 85 72 
5.456954 1.483444 -27.125828 107 84 72 
5.509934 1.483444 -27.125828 107 83 69 
5.562914 1.483444 -27.125828 106 80 65 
5.615894 1.483444 -27.125828 108 80 64 
5.668874 1.483444 -27.125828 109 81 63 
5.740864 1.488372 -27.215946 109 81 61 
5.832776 1.498328 -27.397993 107 81 62 
5.906040 1.503356 -27.489933 106 82 64 
5.959732 1.503356 -27.489933 105 84 66 
5.776505 1.283668 -23.472780 121 94 81 
5.822350 1.283668 -23.472780 135 105 93 
5.851429 1.280000 -23.405714 136 108 98 
5.897143 1.280000 -23.405714 119 94 84 
5.942857 1.280000 -23.405714 98 76 66 
6.005731 1.283668 -23.472780 96 77 66 
6.051576 1.283668 -23.472780 103 84 71 
6.114943 1.287356 -23.540230 113 91 76 
6.143267 1.283668 -23.472780 125 100 83 
10.463668 1.550173 -28.346022 132 110 89 
10.519032 1.550173 -28.346022 133 112 89 
10.777778 1.555556 -28.444445 125 107 85 
10.833333 1.555556 -28.444445 124 106 86 
10.888889 1.555556 -28.444445 124 106 87 
2.485671 0.337858 -6.177979 119 96 87 
2.495855 0.337604 -6.173323 116 96 87 
2.506024 0.337349 -6.168674 117 100 88 
2.518072 0.337349 -6.168674 118 104 89 
2.530120 0.337349 -6.168674 120 106 92 
2.542169 0.337349 -6.168674 117 104 91 
2.554217 0.337349 -6.168674 110 99 88 
2.566265 0.337349 -6.168674 106 97 86 
2.578313 0.337349 -6.168674 102 95 83 
5.545571 0.575096 -10.516047 177 174 156 
5.558974 0.574359 -10.502564 165 163 145 
5.579487 0.574359 -10.502564 153 154 138 
5.592830 0.573624 -10.489117 151 154 139 
5.606138 0.572890 -10.475703 154 157 141 
5.626598 0.572890 -10.475703 158 161 143 
11.833333 1.166667 -21.333334 168 167 148 
11.662404 1.145780 -20.951406 168 166 149 
11.497487 1.125628 -20.582914 166 162 149 
11.366337 1.108911 -20.277227 163 159 147 
11.405941 1.108911 -20.277227 163 161 149 
11.278049 1.092683 -19.980488 167 165 151 
4.653962 0.449348 -8.216650 171 169 153 
4.660661 0.448448 -8.200200 176 174 155 
4.681363 0.448898 -8.208417 185 184 162 
3.166667 0.291667 -5.333333 219 222 210 
3.177083 0.291667 -5.333333 218 220 207 
3.187500 0.291667 -5.333333 216 218 203 
3.197917 0.291667 -5.333333 214 216 199 
3.208333 0.291667 -5.333333 209 210 192 
3.218750 0.291667 -5.333333 203 203 182 
3.243950 0.293002 -5.357750 197 196 172 
-7.916955 1.494810 -28.346022 190 194 195 
-7.780822 1.479452 -28.054794 189 195 195 
-7.647458 1.464407 -27.769491 188 195 195 
-7.491639 1.444816 -27.397993 188 195 195 
-7.388704 1.435216 -27.215946 189 195 195 
-7.287129 1.425743 -27.036304 191 195 196 
-7.210526 1.421053 -26.947369 191 195 196 
-7.157895 1.421053 -26.947369 191 195 197 
-7.105263 1.421053 -26.947369 190 193 197 
-7.029508 1.416393 -26.859016 192 194 198 
-6.977049 1.416393 -26.859016 195 194 200 
-6.924590 1.416393 -26.859016 194 194 199 
-6.849673 1.411765 -26.771242 192 194 199 
-6.797386 1.411765 -26.771242 190 194 197 
-6.745098 1.411765 -26.771242 188 193 196 
-6.649351 1.402597 -26.597403 187 192 196 
-6.597403 1.402597 -26.597403 188 193 196 
-6.545455 1.402597 -26.597403 189 192 196 
-6.514658 1.407166 -26.684038 190 192 197 
-6.462541 1.407166 -26.684038 191 192 197 
-0.367177 0.300417 -5.696801 104 86 77 
-0.355309 0.299792 -5.684941 113 89 81 
-0.343728 0.299376 -5.677062 119 91 85 
-0.332410 0.299169 -5.673130 121 93 87 
-0.321107 0.298962 -5.669204 121 93 87 
-0.309606 0.298549 -5.661368 121 91 86 
-0.298549 0.298549 -5.661368 120 90 85 
-0.286304 0.297316 -5.637990 119 88 83 
-0.274725 0.296703 -5.626374 119 87 83 
-0.263736 0.296703 -5.626374 119 88 85 
-0.252747 0.296703 -5.626374 120 87 84 
-0.241924 0.296907 -5.630240 118 85 81 
-0.231087 0.297111 -5.634113 119 85 78 
-0.220083 0.297111 -5.634113 120 87 78 
-0.209222 0.297316 -5.637990 121 87 76 
-0.198211 0.297316 -5.637990 121 86 73 
-0.187328 0.297521 -5.641873 120 85 71 
-0.176309 0.297521 -5.641873 118 84 75 
-0.165289 0.297521 -5.641873 116 83 77 
-0.155017 0.298962 -5.669204 114 80 76 
-0.144847 0.300836 -5.704735 115 80 76 
-0.133891 0.301255 -5.712692 116 80 76 
